# .PCD v0.7 - Point Cloud Data file format
VERSION 0.7
FIELDS x y z rgb
SIZE 4 4 4 4
TYPE F F F F
COUNT 1 1 1 1
WIDTH 1018
HEIGHT 1
VIEWPOINT 0 0 0 1 0 0 0
POINTS 1018
DATA ascii
-0.20256785 -0.13709138 0.778 -2.9689235e+38
-0.19983967 -0.13709138 0.778 -2.7020354e+38
-0.19711147 -0.13709138 0.778 -2.6753977e+38
-0.19438329 -0.13709138 0.778 -2.6487567e+38
-0.1916551 -0.13709138 0.778 -2.7821529e+38
-0.18941259 -0.1374438 0.77999997 -2.728827e+38
-0.18691672 -0.13762 0.78100002 -2.7822547e+38
-0.18394218 -0.1374438 0.77999997 -2.8088419e+38
-0.18120699 -0.1374438 0.77999997 -2.7823087e+38
-0.17870061 -0.13762 0.78100002 -2.795548e+38
-0.17596191 -0.13762 0.78100002 -2.7556199e+38
-0.17366678 -0.13797241 0.78299999 -2.6223845e+38
-0.17092106 -0.13797241 0.78299999 -2.7689099e+38
-0.16817534 -0.13797241 0.78299999 -2.9557316e+38
-0.16542962 -0.13797241 0.78299999 -2.7421733e+38
-0.1626839 -0.13797241 0.78299999 -2.7288796e+38
-0.1603467 -0.13832484 0.78500003 -2.5691097e+38
-0.15799549 -0.13867725 0.787 -2.4619919e+38
-0.15563023 -0.13902968 0.78899997 -2.8355338e+38
-0.152476 -0.13867725 0.787 -2.622232e+38
-0.14971626 -0.13867725 0.787 -2.7421733e+38
-0.1469565 -0.13867725 0.787 -2.7955992e+38
-0.14383031 -0.13832484 0.78500003 -2.7821525e+38
-0.14143702 -0.13867725 0.787 -2.9156998e+38
-0.13867725 -0.13867725 0.787 -2.9024075e+38
-0.13626292 -0.13902968 0.78899997 -3.0091614e+38
-0.13349617 -0.13902968 0.78899997 -2.6489158e+38
-0.13089509 -0.1392059 0.79000002 -2.6624699e+38
-0.12812483 -0.1392059 0.79000002 -2.9289935e+38
-0.12535457 -0.1392059 0.79000002 -2.7153804e+38
-0.1225843 -0.1392059 0.79000002 -2.7824109e+38
-0.11981402 -0.1392059 0.79000002 -2.8222379e+38
-0.11704377 -0.1392059 0.79000002 -2.8622194e+38
-0.1142735 -0.1392059 0.79000002 -2.7022924e+38
-0.11206781 -0.13991074 0.79400003 -2.7023431e+38
-0.10928351 -0.13991074 0.79400003 -2.7155867e+38
-0.10676748 -0.14026316 0.796 -2.702138e+38
-0.10397618 -0.14026316 0.796 -2.7155842e+38
-0.1014391 -0.14061557 0.79799998 -2.7556203e+38
-0.098640777 -0.14061557 0.79799998 -2.7689643e+38
-0.095842451 -0.14061557 0.79799998 -2.7689643e+38
-0.092810944 -0.14026316 0.796 -2.942442e+38
-0.090245813 -0.14061557 0.79799998 -2.7823087e+38
-0.087447494 -0.14061557 0.79799998 -2.8356863e+38
-0.084649175 -0.14061557 0.79799998 -2.7425363e+38
-0.082261138 -0.14132041 0.80199999 -2.7690665e+38
-0.079448789 -0.14132041 0.80199999 -2.8088924e+38
-0.076636441 -0.14132041 0.80199999 -3.1023091e+38
-0.073824093 -0.14132041 0.80199999 -2.8488188e+38
-0.071011752 -0.14132041 0.80199999 -2.8622194e+38
-0.068199404 -0.14132041 0.80199999 -2.8088924e+38
-0.065468587 -0.14149663 0.80299997 -2.808946e+38
-0.062652729 -0.14149663 0.80299997 -2.7422755e+38
-0.059836879 -0.14149663 0.80299997 -2.755671e+38
-0.057021026 -0.14149663 0.80299997 -2.8088419e+38
-0.05434018 -0.14184906 0.80500001 -2.7823087e+38
-0.051517315 -0.14184906 0.80500001 -2.702451e+38
-0.048815425 -0.14220147 0.80699998 -2.648865e+38
-0.045985546 -0.14220147 0.80699998 -2.7421733e+38
-0.04326262 -0.1425539 0.80900002 -2.8757195e+38
-0.040425729 -0.1425539 0.80900002 -3.1159691e+38
-0.037681758 -0.14290631 0.81099999 -2.849133e+38
-0.034837853 -0.14290631 0.81099999 -2.9024084e+38
-0.031993948 -0.14290631 0.81099999 -2.715637e+38
-0.029150041 -0.14290631 0.81099999 -2.755671e+38
-0.026306136 -0.14290631 0.81099999 -2.5691609e+38
-0.02346223 -0.14290631 0.81099999 -2.7295497e+38
-0.02066917 -0.14325874 0.81300002 -3.1156619e+38
-0.01781825 -0.14325874 0.81300002 -2.7822036e+38
-0.015004149 -0.14361115 0.815 -2.7425868e+38
-0.01211641 -0.14325874 0.81300002 -2.9160633e+38
-0.0092654899 -0.14325874 0.81300002 -3.0092654e+38
-0.0064145699 -0.14325874 0.81300002 -3.0358528e+38
-0.00356365 -0.14325874 0.81300002 -3.0359542e+38
-0.00071448332 -0.14361115 0.815 -2.9424927e+38
0.00214871 -0.14396356 0.81699997 -2.8756145e+38
0.0050259298 -0.14431599 0.81900001 -2.7689643e+38
0.0078978892 -0.14431599 0.81900001 -2.7558807e+38
0.01076985 -0.14431599 0.81900001 -3.0091636e+38
0.013641809 -0.14431599 0.81900001 -2.8089436e+38
0.016513769 -0.14431599 0.81900001 -2.7823093e+38
0.019385731 -0.14431599 0.81900001 -2.7422248e+38
0.022312043 -0.1446684 0.82099998 -2.6220229e+38
0.025191015 -0.1446684 0.82099998 -2.6487121e+38
0.02806999 -0.1446684 0.82099998 -2.7422225e+38
0.030948959 -0.1446684 0.82099998 -2.8356356e+38
0.033827934 -0.1446684 0.82099998 -3.0627457e+38
0.036796328 -0.14502083 0.82300001 -2.5956957e+38
0.039778747 -0.14537324 0.82499999 -2.7559314e+38
0.042671748 -0.14537324 0.82499999 -2.7425357e+38
0.045675211 -0.14572567 0.82700002 -2.822289e+38
0.048692692 -0.14607808 0.829 -2.7955489e+38
0.051599722 -0.14607808 0.829 -3.1288988e+38
0.05437525 -0.14572567 0.82700002 -2.8356845e+38
0.057275262 -0.14572567 0.82700002 -2.7426379e+38
0.060175274 -0.14572567 0.82700002 -2.7959133e+38
0.063075289 -0.14572567 0.82700002 -2.7025025e+38
0.066294402 -0.14643049 0.83099997 -2.8089951e+38
0.069041878 -0.14607808 0.829 -2.8088933e+38
0.072122484 -0.14643049 0.83099997 -2.7556199e+38
0.07521712 -0.14678292 0.833 -2.8224999e+38
0.078138173 -0.14678292 0.833 -2.9958695e+38
0.081448466 -0.14748776 0.83700001 -2.728827e+38
0.084181905 -0.14713533 0.83499998 -2.8758268e+38
0.087318629 -0.14748776 0.83700001 -2.7691679e+38
0.090253711 -0.14748776 0.83700001 -2.702451e+38
0.093411461 -0.14784017 0.83899999 -2.7558807e+38
0.096583247 -0.1481926 0.84100002 -2.875669e+38
0.099295646 -0.14784017 0.83899999 -2.9154386e+38
0.10223773 -0.14784017 0.83899999 -2.9290949e+38
0.10517983 -0.14784017 0.83899999 -2.8356867e+38
0.10812192 -0.14784017 0.83899999 -2.9024084e+38
0.11132877 -0.1481926 0.84100002 -3.0491932e+38
0.11427788 -0.1481926 0.84100002 -2.9689742e+38
0.11750577 -0.14854501 0.84299999 -2.9158031e+38
0.12046188 -0.14854501 0.84299999 -2.7289814e+38
0.12371082 -0.14889744 0.84500003 -2.7021396e+38
0.12667395 -0.14889744 0.84500003 -2.6490744e+38
0.12963708 -0.14889744 0.84500003 -2.9159623e+38
0.13260022 -0.14889744 0.84500003 -2.8623755e+38
0.13556336 -0.14889744 0.84500003 -2.6624188e+38
0.13852647 -0.14889744 0.84500003 -2.6492271e+38
0.14148961 -0.14889744 0.84500003 -2.7823087e+38
0.14479464 -0.14924985 0.847 -2.8092577e+38
0.14776479 -0.14924985 0.847 -2.8758214e+38
0.15109086 -0.14960228 0.84899998 -2.7689099e+38
0.15406802 -0.14960228 0.84899998 -2.7689643e+38
0.15704517 -0.14960228 0.84899998 -2.7557221e+38
0.16002233 -0.14960228 0.84899998 -2.8088924e+38
0.1629995 -0.14960228 0.84899998 -2.7688081e+38
0.16597666 -0.14960228 0.84899998 -2.6491251e+38
0.16994883 -0.15048333 0.85399997 -2.7290325e+38
0.17294352 -0.15048333 0.85399997 -2.7288781e+38
0.17635027 -0.15083575 0.85600001 -2.6755535e+38
0.17935197 -0.15083575 0.85600001 -2.6488646e+38
0.18235368 -0.15083575 0.85600001 -2.6224361e+38
0.18578845 -0.15118816 0.85799998 -2.6090401e+38
0.18879718 -0.15118816 0.85799998 -2.7021396e+38
0.19270009 -0.151893 0.86199999 -2.6488646e+38
0.19572283 -0.151893 0.86199999 -2.702451e+38
0.19874558 -0.151893 0.86199999 -2.7690665e+38
0.20176832 -0.151893 0.86199999 -2.7688592e+38
0.20431592 -0.15154059 0.86000001 -2.7688081e+38
0.20733166 -0.15154059 0.86000001 -2.6757068e+38
0.2103474 -0.15154059 0.86000001 -2.662209e+38
0.21336313 -0.15154059 0.86000001 -2.702138e+38
0.21688206 -0.151893 0.86199999 -2.755671e+38
0.22041504 -0.15224543 0.86400002 -2.7022423e+38
0.22344479 -0.15224543 0.86400002 -2.6756046e+38
0.22647455 -0.15224543 0.86400002 -2.6489158e+38
0.23030119 -0.15277407 0.86699998 -2.568953e+38
0.23334149 -0.15277407 0.86699998 -2.7292448e+38
0.23747234 -0.15347891 0.87099999 -2.7024003e+38
0.24052663 -0.15347891 0.87099999 -2.7155867e+38
0.24302164 -0.15312649 0.86900002 -2.6756046e+38
0.24663526 -0.15347891 0.87099999 -2.6224361e+38
0.24968955 -0.15347891 0.87099999 -2.6757064e+38
0.25216353 -0.15312649 0.86900002 -2.7423266e+38
0.25521082 -0.15312649 0.86900002 -2.969076e+38
0.2582581 -0.15312649 0.86900002 -2.715484e+38
0.26190677 -0.15347891 0.87099999 -2.6755535e+38
0.26556951 -0.15383133 0.87300003 -2.6221758e+38
0.26863083 -0.15383133 0.87300003 -2.7154826e+38
0.27169216 -0.15383133 0.87300003 -2.7020354e+38
0.27475348 -0.15383133 0.87300003 -2.7021372e+38
0.27781481 -0.15383133 0.87300003 -2.6887417e+38
0.28151956 -0.15418375 0.875 -2.6355713e+38
0.28458789 -0.15418375 0.875 -2.6486044e+38
0.2886425 -0.15471236 0.87800002 -2.6086738e+38
0.29172134 -0.15471236 0.87800002 -2.6486549e+38
0.29480022 -0.15471236 0.87800002 -2.5420579e+38
0.29855758 -0.15506479 0.88 -2.4623563e+38
0.30164343 -0.15506479 0.88 -2.5424739e+38
0.30472931 -0.15506479 0.88 -2.5425244e+38
0.30781519 -0.15506479 0.88 -2.4757527e+38
0.31090105 -0.15506479 0.88 -2.4090817e+38
0.31470051 -0.15541722 0.88200003 -2.4892496e+38
0.31779343 -0.15541722 0.88200003 -2.6756561e+38
0.32270539 -0.15629826 0.88700002 -2.5155786e+38
0.3258158 -0.15629826 0.88700002 -2.5024415e+38
0.32818455 -0.15594584 0.88499999 -2.4623563e+38
0.33128792 -0.15594584 0.88499999 -2.4486474e+38
0.33439133 -0.15594584 0.88499999 -2.4888344e+38
0.33902013 -0.15665068 0.889 -2.5421094e+38
0.34213755 -0.15665068 0.889 -2.4623056e+38
0.3460317 -0.15700309 0.89099997 -2.4356673e+38
0.34915614 -0.15700309 0.89099997 -2.4752856e+38
0.35228056 -0.15700309 0.89099997 -2.4219079e+38
0.35660169 -0.15753174 0.89399999 -2.4753363e+38
0.36054143 -0.15788417 0.89600003 -2.3953209e+38
0.36287159 -0.15753174 0.89399999 -2.462043e+38
0.36600655 -0.15753174 0.89399999 -2.4887318e+38
0.36914152 -0.15753174 0.89399999 -2.3689966e+38
0.3710272 -0.15700309 0.89099997 -2.3423076e+38
0.37709114 -0.15823658 0.898 -2.3156198e+38
0.38151044 -0.1587652 0.90100002 -2.3022746e+38
0.38466993 -0.1587652 0.90100002 -2.5156275e+38
0.38782945 -0.1587652 0.90100002 -2.3421542e+38
0.39098895 -0.1587652 0.90100002 -2.2622921e+38
0.39414844 -0.1587652 0.90100002 -2.3555504e+38
0.39730796 -0.1587652 0.90100002 -2.3953217e+38
0.40135637 -0.15911762 0.903 -2.4486986e+38
0.40586683 -0.15964626 0.90600002 -2.5154206e+38
0.40904388 -0.15964626 0.90600002 -2.4220605e+38
0.41222093 -0.15964626 0.90600002 -2.4353542e+38
0.41402248 -0.15911762 0.903 -2.4353542e+38
0.417189 -0.15911762 0.903 -2.3422565e+38
0.42035553 -0.15911762 0.903 -2.3156198e+38
0.42352206 -0.15911762 0.903 -2.3819765e+38
0.42905116 -0.15999867 0.90799999 -2.3419433e+38
0.43223524 -0.15999867 0.90799999 -2.3288058e+38
0.43541926 -0.15999867 0.90799999 -2.2755346e+38
0.43860331 -0.15999867 0.90799999 -2.2622414e+38
0.44178739 -0.15999867 0.90799999 -2.275272e+38
nan nan nan -2.3418922e+38
nan nan nan -2.3284971e+38
nan nan nan -2.2885146e+38
nan nan nan -2.3285478e+38
nan nan nan -2.3421502e+38
nan nan nan -2.3552877e+38
nan nan nan -2.2755858e+38
nan nan nan -2.2222601e+38
nan nan nan -2.2089157e+38
nan nan nan -2.1821749e+38
nan nan nan -2.1821238e+38
nan nan nan -2.2353949e+38
nan nan nan -2.1952056e+38
nan nan nan -2.1821238e+38
nan nan nan -2.1554859e+38
nan nan nan -2.1951548e+38
nan nan nan -2.1953082e+38
nan nan nan -2.2485325e+38
nan nan nan -2.2350862e+38
nan nan nan -2.2351881e+38
nan nan nan -2.168466e+38
-0.4098925 -0.12676425 0.73400003 -2.3285989e+38
-0.40842846 -0.12710965 0.736 -2.435303e+38
-0.40750185 -0.12762776 0.73900002 -2.568538e+38
-0.40491039 -0.12762776 0.73900002 -2.4750768e+38
-0.40177453 -0.12745506 0.73799998 -2.3953217e+38
-0.39918661 -0.12745506 0.73799998 -2.2755346e+38
-0.39713612 -0.12762776 0.73900002 -2.302117e+38
-0.39561248 -0.12797317 0.741 -2.3819254e+38
-0.39301401 -0.12797317 0.741 -2.5017141e+38
-0.39094245 -0.12814586 0.74199998 -2.435303e+38
-0.38781714 -0.12797317 0.741 -2.4619919e+38
-0.38521871 -0.12797317 0.741 -2.3689455e+38
-0.38158759 -0.12762776 0.73900002 -2.5153695e+38
-0.37899613 -0.12762776 0.73900002 -2.4887326e+38
-0.37742338 -0.12797317 0.741 -2.4619919e+38
-0.37533081 -0.12814586 0.74199998 -2.4887326e+38
-0.37373352 -0.12849128 0.74400002 -2.6352087e+38
-0.37112454 -0.12849128 0.74400002 -2.6086245e+38
-0.36950621 -0.12883669 0.74599999 -2.608572e+38
-0.36590663 -0.12849128 0.74400002 -2.5687471e+38
-0.36232105 -0.12814586 0.74199998 -2.6755539e+38
-0.3597191 -0.12814586 0.74199998 -2.608572e+38
-0.35807976 -0.12849128 0.74400002 -2.5554027e+38
-0.35642636 -0.12883669 0.74599999 -2.6354691e+38
-0.35381037 -0.12883669 0.74599999 -2.6752421e+38
-0.35166517 -0.12900938 0.74699998 -2.8088419e+38
-0.34904569 -0.12900938 0.74699998 -2.595382e+38
-0.34642622 -0.12900938 0.74699998 -2.4887326e+38
-0.34334648 -0.12883669 0.74599999 -2.528765e+38
-0.34073049 -0.12883669 0.74599999 -2.768653e+38
-0.33811453 -0.12883669 0.74599999 -2.7688085e+38
-0.33684775 -0.1293548 0.74900001 -2.4487493e+38
-0.33422127 -0.1293548 0.74900001 -2.4219079e+38
-0.33203748 -0.12952749 0.75 -2.7419641e+38
-0.33028588 -0.1298729 0.75199997 -2.6754484e+38
-0.32764888 -0.1298729 0.75199997 -2.3022243e+38
-0.32501188 -0.1298729 0.75199997 -2.5824053e+38
-0.32237485 -0.1298729 0.75199997 -2.649176e+38
-0.31973785 -0.1298729 0.75199997 -2.4753371e+38
-0.31710082 -0.1298729 0.75199997 -2.6487632e+38
-0.31446379 -0.1298729 0.75199997 -2.8088924e+38
-0.3118268 -0.1298729 0.75199997 -2.6220718e+38
-0.3091898 -0.1298729 0.75199997 -2.4890967e+38
-0.30777574 -0.13039102 0.755 -2.1289585e+38
-0.30593652 -0.13073643 0.75700003 -2.5958016e+38
-0.30328196 -0.13073643 0.75700003 -2.6621583e+38
-0.30062741 -0.13073643 0.75700003 -2.6088314e+38
-0.29797286 -0.13073643 0.75700003 -2.5823493e+38
-0.29453808 -0.13039102 0.755 -2.6887417e+38
-0.29189053 -0.13039102 0.755 -2.6354162e+38
-0.29000923 -0.13073643 0.75700003 -2.5951761e+38
-0.28811386 -0.13108182 0.759 -2.6487056e+38
-0.28545228 -0.13108182 0.759 -2.6221758e+38
-0.2835359 -0.13142723 0.76099998 -2.648865e+38
-0.28086731 -0.13142723 0.76099998 -2.6220203e+38
-0.27819875 -0.13142723 0.76099998 -2.7555185e+38
-0.27553019 -0.13142723 0.76099998 -2.7288289e+38
-0.2728616 -0.13142723 0.76099998 -2.8355827e+38
-0.26948294 -0.13108182 0.759 -2.7288781e+38
-0.26682138 -0.13108182 0.759 -2.7021907e+38
-0.26485589 -0.13142723 0.76099998 -2.4890455e+38
-0.2621873 -0.13142723 0.76099998 -2.6087288e+38
-0.25985977 -0.13159993 0.76200002 -2.6618981e+38
-0.25718769 -0.13159993 0.76200002 -2.7688081e+38
-0.25451562 -0.13159993 0.76200002 -2.6753466e+38
-0.25250453 -0.13194534 0.764 -2.6488139e+38
-0.24982543 -0.13194534 0.764 -2.8755634e+38
-0.24779332 -0.13229074 0.76599997 -2.8889082e+38
-0.24446724 -0.13194534 0.764 -2.6755027e+38
-0.24178815 -0.13194534 0.764 -2.5287143e+38
-0.23910905 -0.13194534 0.764 -2.5555045e+38
-0.23642996 -0.13194534 0.764 -2.7820493e+38
-0.23436278 -0.13229074 0.76599997 -2.7020382e+38
-0.23167668 -0.13229074 0.76599997 -2.4087215e+38
-0.22928952 -0.13246346 0.76700002 -2.728727e+38
-0.22719078 -0.13280885 0.76899999 -2.7154816e+38
-0.22449416 -0.13280885 0.76899999 -2.8889082e+38
-0.22179753 -0.13280885 0.76899999 -2.8088428e+38
-0.21910091 -0.13280885 0.76899999 -2.7690154e+38
-0.21696711 -0.13315427 0.77100003 -2.7022423e+38
-0.21426347 -0.13315427 0.77100003 -3.0490406e+38
-0.21155983 -0.13315427 0.77100003 -2.7687578e+38
-0.2088562 -0.13315427 0.77100003 -2.8623244e+38
-0.2066873 -0.13349968 0.773 -2.7688081e+38
-0.20397666 -0.13349968 0.773 -2.7287755e+38
-0.20126599 -0.13349968 0.773 -2.7422759e+38
-0.19881222 -0.13367237 0.77399999 -2.728827e+38
-0.19609804 -0.13367237 0.77399999 -2.7688085e+38
-0.19338389 -0.13367237 0.77399999 -2.6887417e+38
-0.19066973 -0.13367237 0.77399999 -2.8621683e+38
-0.18844126 -0.1340178 0.77600002 -2.8623208e+38
-0.18619873 -0.13436319 0.778 -2.7556203e+38
-0.18347055 -0.13436319 0.778 -2.7422248e+38
-0.18074235 -0.13436319 0.778 -2.6220736e+38
-0.17801417 -0.13436319 0.778 -2.8755634e+38
-0.17528598 -0.13436319 0.778 -2.8355316e+38
-0.17300139 -0.13470858 0.77999997 -2.7289311e+38
-0.17026618 -0.13470858 0.77999997 -2.8088933e+38
-0.16753098 -0.13470858 0.77999997 -2.7955489e+38
-0.16500707 -0.1348813 0.78100002 -2.7821525e+38
-0.16226837 -0.1348813 0.78100002 -2.7821529e+38
-0.15993819 -0.1352267 0.78299999 -2.6890555e+38
-0.15719245 -0.1352267 0.78299999 -2.7422225e+38
-0.15523574 -0.13591751 0.787 -2.7022423e+38
-0.15170102 -0.1352267 0.78299999 -2.6755027e+38
-0.1489553 -0.1352267 0.78299999 -2.7020354e+38
-0.14620958 -0.1352267 0.78299999 -2.7689643e+38
-0.14346386 -0.1352267 0.78299999 -2.9958695e+38
-0.14071815 -0.1352267 0.78299999 -2.7955489e+38
-0.13797241 -0.1352267 0.78299999 -3.0757806e+38
-0.13591751 -0.13591751 0.787 -3.1024189e+38
-0.13315777 -0.13591751 0.787 -2.8490818e+38
-0.13072941 -0.13626292 0.78899997 -2.6490748e+38
-0.12796263 -0.13626292 0.78899997 -2.7688085e+38
-0.12519588 -0.13626292 0.78899997 -2.728827e+38
-0.12242913 -0.13626292 0.78899997 -2.8490311e+38
-0.11966236 -0.13626292 0.78899997 -3.0091098e+38
-0.11689559 -0.13626292 0.78899997 -2.715484e+38
-0.11412884 -0.13626292 0.78899997 -2.6356782e+38
-0.11136208 -0.13626292 0.78899997 -2.6221251e+38
-0.10873297 -0.13643563 0.79000002 -2.8356841e+38
-0.10623096 -0.13678104 0.792 -2.88901e+38
-0.10345367 -0.13678104 0.792 -2.7687525e+38
-0.10067639 -0.13678104 0.792 -2.7688081e+38
-0.098146334 -0.13712645 0.79400003 -2.7688081e+38
-0.095362052 -0.13712645 0.79400003 -2.7821525e+38
-0.092577755 -0.13712645 0.79400003 -2.8222882e+38
-0.089793459 -0.13712645 0.79400003 -2.8622701e+38
-0.087228328 -0.13747184 0.796 -3.0757295e+38
-0.084437028 -0.13747184 0.796 -2.8355316e+38
-0.081850857 -0.13781725 0.79799998 -2.7689647e+38
-0.07905253 -0.13781725 0.79799998 -2.7291406e+38
-0.076254211 -0.13781725 0.79799998 -2.8222904e+38
-0.0734559 -0.13781725 0.79799998 -2.7823093e+38
-0.070657574 -0.13781725 0.79799998 -2.8356867e+38
-0.068029329 -0.13816267 0.80000001 -2.8356863e+38
-0.065223999 -0.13816267 0.80000001 -2.8356356e+38
-0.062574707 -0.13850807 0.80199999 -2.7425868e+38
-0.059762362 -0.13850807 0.80199999 -2.7959133e+38
-0.056950014 -0.13850807 0.80199999 -2.8356867e+38
-0.05413767 -0.13850807 0.80199999 -2.7155352e+38
-0.051389322 -0.13868077 0.80299997 -2.7558803e+38
-0.048573464 -0.13868077 0.80299997 -2.8359465e+38
-0.045757614 -0.13868077 0.80299997 -2.6892084e+38
-0.043048713 -0.13902618 0.80500001 -2.7022924e+38
-0.040225849 -0.13902618 0.80500001 -2.9157528e+38
-0.037495907 -0.13937159 0.80699998 -3.0089009e+38
-0.034666028 -0.13937159 0.80699998 -2.9156487e+38
-0.031836148 -0.13937159 0.80699998 -2.7559314e+38
-0.029006267 -0.13937159 0.80699998 -2.7024003e+38
-0.026176387 -0.13937159 0.80699998 -2.6357809e+38
-0.023346508 -0.13937159 0.80699998 -2.6624699e+38
-0.020567477 -0.139717 0.80900002 -2.8353218e+38
-0.017774416 -0.14006239 0.81099999 -2.928682e+38
-0.014930509 -0.14006239 0.81099999 -2.8222904e+38
-0.012086603 -0.14006239 0.81099999 -2.7823093e+38
-0.0092426967 -0.14006239 0.81099999 -2.9692294e+38
-0.0063830097 -0.139717 0.80900002 -2.8622701e+38
-0.0035548829 -0.14006239 0.81099999 -2.9289935e+38
-0.0007109766 -0.14006239 0.81099999 -2.8089975e+38
0.0021434498 -0.14075321 0.815 -2.9424416e+38
0.0050013829 -0.14075321 0.815 -2.8090458e+38
0.0078786025 -0.1410986 0.81699997 -2.8222882e+38
0.010743549 -0.1410986 0.81699997 -2.8622701e+38
0.013608496 -0.1410986 0.81699997 -2.7421718e+38
0.01647344 -0.1410986 0.81699997 -2.715898e+38
0.01933839 -0.1410986 0.81699997 -2.8490311e+38
0.022203336 -0.1410986 0.81699997 -3.0092147e+38
0.02512965 -0.14144403 0.81900001 -2.8755638e+38
0.028001608 -0.14144403 0.81900001 -2.9023033e+38
0.030873569 -0.14144403 0.81900001 -2.8623244e+38
0.033745527 -0.14144403 0.81900001 -2.9158039e+38
0.036706906 -0.14178944 0.82099998 -2.7958107e+38
0.039585881 -0.14178944 0.82099998 -2.8226533e+38
0.042464852 -0.14178944 0.82099998 -2.7823093e+38
0.045454286 -0.14213483 0.82300001 -2.8891114e+38
0.048457745 -0.14248024 0.82499999 -2.8222882e+38
0.051475238 -0.14282566 0.82700002 -2.8886475e+38
0.05437525 -0.14282566 0.82700002 -3.0226072e+38
0.057136744 -0.14248024 0.82499999 -2.8357881e+38
0.060029745 -0.14248024 0.82499999 -2.7291406e+38
0.062922746 -0.14248024 0.82499999 -2.782517e+38
0.065975301 -0.14282566 0.82700002 -2.7823087e+38
0.068875313 -0.14282566 0.82700002 -2.7823087e+38
0.071775325 -0.14282566 0.82700002 -2.8889082e+38
0.074855931 -0.14317106 0.829 -2.862219e+38
0.077762961 -0.14317106 0.829 -2.9156998e+38
0.081059225 -0.14386187 0.833 -2.9824204e+38
0.083980277 -0.14386187 0.833 -2.7823598e+38
0.086901329 -0.14386187 0.833 -2.8623751e+38
0.089822389 -0.14386187 0.833 -2.7157962e+38
0.09296611 -0.14420727 0.83499998 -2.7689643e+38
0.096123867 -0.14455269 0.83700001 -3.022508e+38
0.099058948 -0.14455269 0.83700001 -2.6756557e+38
0.10175031 -0.14420727 0.83499998 -2.7556203e+38
0.10467838 -0.14420727 0.83499998 -2.7689647e+38
0.10760644 -0.14420727 0.83499998 -2.8356867e+38
0.11079927 -0.14455269 0.83700001 -2.8622701e+38
0.11400611 -0.1448981 0.83899999 -2.9156998e+38
0.1169482 -0.1448981 0.83899999 -2.7824105e+38
0.1198903 -0.1448981 0.83899999 -2.8358384e+38
0.1231252 -0.1452435 0.84100002 -2.8224437e+38
0.12607431 -0.1452435 0.84100002 -2.7688081e+38
0.12902342 -0.1452435 0.84100002 -2.8089967e+38
0.13197252 -0.1452435 0.84100002 -2.755671e+38
0.13492163 -0.1452435 0.84100002 -2.7157954e+38
0.13787073 -0.1452435 0.84100002 -2.6624695e+38
0.14081983 -0.1452435 0.84100002 -2.7958618e+38
0.14411084 -0.1455889 0.84299999 -2.7825174e+38
0.14741588 -0.14593431 0.84500003 -2.8089436e+38
0.15037902 -0.14593431 0.84500003 -2.8089436e+38
0.15334216 -0.14593431 0.84500003 -2.7422755e+38
0.15630528 -0.14593431 0.84500003 -2.7422759e+38
0.15926841 -0.14593431 0.84500003 -2.8223397e+38
0.16261552 -0.14627971 0.847 -2.8356845e+38
0.16558567 -0.14627971 0.847 -2.702451e+38
0.16895382 -0.14662512 0.84899998 -2.6223853e+38
0.17193097 -0.14662512 0.84899998 -2.6755539e+38
0.17532018 -0.14697054 0.85100001 -2.7155859e+38
0.17830436 -0.14697054 0.85100001 -2.6491255e+38
0.18128853 -0.14697054 0.85100001 -2.6491255e+38
0.18427271 -0.14697054 0.85100001 -2.7558803e+38
0.18791699 -0.14748864 0.85399997 -2.7422759e+38
0.19135879 -0.14783405 0.85600001 -2.7155867e+38
0.19481461 -0.14817946 0.85799998 -2.622175e+38
0.19782333 -0.14817946 0.85799998 -2.7155867e+38
0.20036392 -0.14783405 0.85600001 -2.715637e+38
0.20336561 -0.14783405 0.85600001 -2.7155859e+38
0.20636733 -0.14783405 0.85600001 -2.7022413e+38
0.20936903 -0.14783405 0.85600001 -2.648865e+38
0.21286693 -0.14817946 0.85799998 -2.6090916e+38
0.21587564 -0.14817946 0.85799998 -2.5558187e+38
0.21939459 -0.14852487 0.86000001 -2.5557676e+38
0.22241032 -0.14852487 0.86000001 -2.6625206e+38
0.22595032 -0.14887026 0.86199999 -2.6223338e+38
0.22897306 -0.14887026 0.86199999 -2.5558187e+38
0.23253408 -0.14921568 0.86400002 -2.6355202e+38
0.23556384 -0.14921568 0.86400002 -2.6755027e+38
0.23942202 -0.14973378 0.86699998 -2.6755535e+38
0.24246232 -0.14973378 0.86699998 -2.6755535e+38
0.24550259 -0.14973378 0.86699998 -2.7022413e+38
0.24854288 -0.14973378 0.86699998 -2.6755539e+38
0.25071263 -0.14921568 0.86400002 -2.6488646e+38
0.2537424 -0.14921568 0.86400002 -2.662209e+38
0.25766373 -0.14973378 0.86699998 -2.7155867e+38
0.26070398 -0.14973378 0.86699998 -2.7155867e+38
0.26496109 -0.1504246 0.87099999 -2.6756046e+38
0.26801541 -0.1504246 0.87099999 -2.5420072e+38
0.27106971 -0.1504246 0.87099999 -2.5553516e+38
0.274124 -0.1504246 0.87099999 -2.6887403e+38
0.27717832 -0.1504246 0.87099999 -2.6887928e+38
0.28023261 -0.1504246 0.87099999 -2.6088304e+38
0.28328693 -0.1504246 0.87099999 -2.4220605e+38
0.28634125 -0.1504246 0.87099999 -2.3551859e+38
0.28939554 -0.1504246 0.87099999 -2.3284971e+38
0.2937929 -0.15111542 0.875 -2.48863e+38
0.29686123 -0.15111542 0.875 -2.5421601e+38
0.30095792 -0.15163352 0.87800002 -2.4754381e+38
0.30403674 -0.15163352 0.87800002 -2.4487493e+38
0.30711561 -0.15163352 0.87800002 -2.4486474e+38
0.31090105 -0.15197892 0.88 -2.4356673e+38
0.31327331 -0.15163352 0.87800002 -2.4491135e+38
0.31707278 -0.15197892 0.88 -2.5822452e+38
0.32088628 -0.15232435 0.88200003 -2.5554538e+38
0.32397917 -0.15232435 0.88200003 -2.5554538e+38
0.32707205 -0.15232435 0.88200003 -2.6090383e+38
0.33016494 -0.15232435 0.88200003 -2.5153695e+38
0.33325779 -0.15232435 0.88200003 -2.4887318e+38
0.33749473 -0.15284245 0.88499999 -2.4090817e+38
0.34059814 -0.15284245 0.88499999 -2.4619411e+38
0.34370154 -0.15284245 0.88499999 -2.5024415e+38
0.34758869 -0.15318786 0.88700002 -2.4757527e+38
0.3506991 -0.15318786 0.88700002 -2.4356673e+38
0.35460725 -0.15353325 0.889 -2.3953209e+38
0.35852948 -0.15387866 0.89099997 -2.422111e+38
0.36165389 -0.15387866 0.89099997 -2.462043e+38
0.36477834 -0.15387866 0.89099997 -2.4485963e+38
0.36790279 -0.15387866 0.89099997 -2.4219586e+38
0.3710272 -0.15387866 0.89099997 -2.3423076e+38
0.37415168 -0.15387866 0.89099997 -2.3556011e+38
0.37854642 -0.15439677 0.89399999 -2.3689455e+38
0.38253525 -0.15474218 0.89600003 -2.3556522e+38
0.38653809 -0.15508759 0.898 -2.3022754e+38
0.38968709 -0.15508759 0.898 -2.4619411e+38
0.39283606 -0.15508759 0.898 -2.5421094e+38
0.39598507 -0.15508759 0.898 -2.3818751e+38
0.39913404 -0.15508759 0.898 -2.3552366e+38
0.40362698 -0.1556057 0.90100002 -2.368581e+38
0.40678647 -0.1556057 0.90100002 -2.2752213e+38
0.40994599 -0.1556057 0.90100002 -2.2487394e+38
0.41172999 -0.15508759 0.898 -2.3418922e+38
0.41487896 -0.15508759 0.898 -2.3019101e+38
0.41802797 -0.15508759 0.898 -2.2754839e+38
0.422584 -0.1556057 0.90100002 -2.3418922e+38
0.42810613 -0.15646923 0.90600002 -2.341994e+38
0.43128318 -0.15646923 0.90600002 -2.2622414e+38
0.43446019 -0.15646923 0.90600002 -2.2621902e+38
0.43763727 -0.15646923 0.90600002 -2.2755346e+38
0.44081429 -0.15646923 0.90600002 -2.288931e+38
nan nan nan -2.288931e+38
nan nan nan -2.3019109e+38
nan nan nan -2.2222601e+38
nan nan nan -2.2752213e+38
nan nan nan -2.275272e+38
nan nan nan -2.2752213e+38
nan nan nan -2.2752213e+38
nan nan nan -2.1951037e+38
nan nan nan -2.1955201e+38
nan nan nan -2.182022e+38
nan nan nan -2.1554348e+38
nan nan nan -2.2084993e+38
nan nan nan -2.1551216e+38
nan nan nan -2.0888148e+38
nan nan nan -2.0754197e+38
nan nan nan -2.1287981e+38
nan nan nan -2.1951037e+38
nan nan nan -2.1817593e+38
nan nan nan -2.1554348e+38
nan nan nan -2.2485325e+38
nan nan nan -2.1817593e+38
-0.4098925 -0.12419035 0.73400003 -2.4084051e+38
-0.40731862 -0.12419035 0.73400003 -2.3019109e+38
-0.40474471 -0.12419035 0.73400003 -2.5152123e+38
-0.40217084 -0.12419035 0.73400003 -2.4884716e+38
-0.3990525 -0.12402114 0.73299998 -2.4486474e+38
-0.39702305 -0.12419035 0.73400003 -2.5024926e+38
-0.3965987 -0.12486713 0.73799998 -2.3423076e+38
-0.39401078 -0.12486713 0.73799998 -2.5286121e+38
-0.39142287 -0.12486713 0.73799998 -2.6487056e+38
-0.38883495 -0.12486713 0.73799998 -2.5687982e+38
-0.38624704 -0.12486713 0.73799998 -2.4887318e+38
-0.38261938 -0.12452874 0.736 -2.4887318e+38
-0.38107118 -0.12486713 0.73799998 -2.4623563e+38
-0.37848327 -0.12486713 0.73799998 -2.5554027e+38
-0.37589535 -0.12486713 0.73799998 -2.5687982e+38
-0.3738133 -0.12503633 0.73900002 -2.5421094e+38
-0.37222651 -0.12537472 0.741 -2.6086738e+38
-0.3701269 -0.12554392 0.74199998 -2.5952783e+38
-0.36752492 -0.12554392 0.74199998 -2.6087245e+38
-0.36443117 -0.12537472 0.741 -2.6087296e+38
-0.36183277 -0.12537472 0.741 -2.4753363e+38
-0.35923433 -0.12537472 0.741 -2.4887326e+38
-0.35711718 -0.12554392 0.74199998 -2.5685887e+38
-0.35547081 -0.12588233 0.74400002 -2.6087245e+38
-0.35286182 -0.12588233 0.74400002 -2.5952783e+38
-0.35119438 -0.1262207 0.74599999 -2.6086227e+38
-0.34764391 -0.12588233 0.74400002 -2.4751271e+38
-0.34596246 -0.1262207 0.74599999 -2.3418922e+38
-0.34334648 -0.1262207 0.74599999 -2.3288058e+38
-0.34073049 -0.1262207 0.74599999 -2.635158e+38
-0.33811453 -0.1262207 0.74599999 -2.6086231e+38
-0.33549857 -0.1262207 0.74599999 -2.4753874e+38
-0.33288258 -0.1262207 0.74599999 -2.4886308e+38
-0.33070931 -0.12638989 0.74699998 -2.7953426e+38
-0.32896826 -0.12672831 0.74900001 -2.6221251e+38
-0.32547039 -0.12638989 0.74699998 -2.7288796e+38
-0.32414749 -0.1268975 0.75 -2.6087288e+38
-0.3215175 -0.1268975 0.75 -2.5554031e+38
-0.31888747 -0.1268975 0.75 -2.6621579e+38
-0.31625748 -0.1268975 0.75 -2.6487606e+38
-0.31320933 -0.12672831 0.74900001 -2.4754381e+38
-0.31099749 -0.1268975 0.75 -2.6619995e+38
-0.30836749 -0.1268975 0.75 -2.6355202e+38
-0.3057375 -0.1268975 0.75 -2.1821238e+38
-0.30472407 -0.12757428 0.75400001 -2.4219586e+38
-0.30208004 -0.12757428 0.75400001 -2.6090383e+38
-0.29864171 -0.12723589 0.75199997 -2.5554538e+38
-0.29521748 -0.1268975 0.75 -2.5820919e+38
-0.29258749 -0.1268975 0.75 -2.6752932e+38
-0.29073068 -0.12723589 0.75199997 -2.6354162e+38
-0.28924301 -0.12774347 0.755 -2.635418e+38
-0.28735468 -0.12808189 0.75700003 -2.7155356e+38
-0.28470013 -0.12808189 0.75700003 -2.5690079e+38
-0.28204557 -0.12808189 0.75700003 -2.7555692e+38
-0.27939105 -0.12808189 0.75700003 -2.6354162e+38
-0.2767365 -0.12808189 0.75700003 -2.3819258e+38
-0.27408195 -0.12808189 0.75700003 -2.6757068e+38
-0.27142739 -0.12808189 0.75700003 -2.9154386e+38
-0.26806274 -0.12774347 0.755 -2.7686e+38
-0.26611829 -0.12808189 0.75700003 -2.702138e+38
-0.26346377 -0.12808189 0.75700003 -2.6887421e+38
-0.26080921 -0.12808189 0.75700003 -2.7154311e+38
-0.25883672 -0.12842026 0.759 -2.5687475e+38
-0.25617513 -0.12842026 0.759 -2.6222772e+38
-0.2535136 -0.12842026 0.759 -2.7688085e+38
-0.25151303 -0.12875865 0.76099998 -2.6887421e+38
-0.24917147 -0.12892786 0.76200002 -2.8622194e+38
-0.24649937 -0.12892786 0.76200002 -2.635518e+38
-0.2438273 -0.12892786 0.76200002 -2.608627e+38
-0.24115521 -0.12892786 0.76200002 -2.555352e+38
-0.23848313 -0.12892786 0.76200002 -2.5554027e+38
-0.23581107 -0.12892786 0.76200002 -2.702034e+38
-0.23375086 -0.12926625 0.764 -2.421954e+38
-0.23107179 -0.12926625 0.764 -2.5686453e+38
-0.22839269 -0.12926625 0.764 -2.7154849e+38
-0.22630447 -0.12960464 0.76599997 -2.7421714e+38
-0.22361836 -0.12960464 0.76599997 -2.7285666e+38
-0.22122069 -0.12977384 0.76700002 -2.6887421e+38
-0.21853109 -0.12977384 0.76700002 -2.7154816e+38
-0.21584146 -0.12977384 0.76700002 -2.5153188e+38
-0.21315186 -0.12977384 0.76700002 -2.7290325e+38
-0.21046223 -0.12977384 0.76700002 -2.7823093e+38
-0.20777263 -0.12977384 0.76700002 -2.6221758e+38
-0.20561777 -0.13011223 0.76899999 -2.8223908e+38
-0.20292114 -0.13011223 0.76899999 -2.7155327e+38
-0.20074527 -0.13045064 0.77100003 -2.6886914e+38
-0.19804163 -0.13045064 0.77100003 -2.6623109e+38
-0.195338 -0.13045064 0.77100003 -2.6887417e+38
-0.19263434 -0.13045064 0.77100003 -2.7688081e+38
-0.18993071 -0.13045064 0.77100003 -2.8220286e+38
-0.18771274 -0.13078901 0.773 -2.7422728e+38
-0.18524142 -0.13095821 0.77399999 -2.7822036e+38
-0.18252724 -0.13095821 0.77399999 -2.7687574e+38
-0.18027772 -0.13129662 0.77600002 -2.648865e+38
-0.17755656 -0.13129662 0.77600002 -2.7422733e+38
-0.17483538 -0.13129662 0.77600002 -2.728827e+38
-0.17211421 -0.13129662 0.77600002 -2.7688592e+38
-0.16982961 -0.13163501 0.778 -2.7688085e+38
-0.16710143 -0.13163501 0.778 -2.7421718e+38
-0.16437323 -0.13163501 0.778 -2.6891062e+38
-0.16164505 -0.13163501 0.778 -2.7025025e+38
-0.15932539 -0.13197339 0.77999997 -2.7021907e+38
-0.15679094 -0.13214259 0.78100002 -2.7288796e+38
-0.15405224 -0.13214259 0.78100002 -2.7288796e+38
-0.15131353 -0.13214259 0.78100002 -2.8355827e+38
-0.14857483 -0.13214259 0.78100002 -2.8621683e+38
-0.14583611 -0.13214259 0.78100002 -2.6087288e+38
-0.14309742 -0.13214259 0.78100002 -2.6490172e+38
-0.14035872 -0.13214259 0.78100002 -2.7689103e+38
-0.13762 -0.13214259 0.78100002 -2.7688081e+38
-0.1352267 -0.13248099 0.78299999 -2.9024084e+38
-0.13214259 -0.13214259 0.78100002 -2.8089951e+38
-0.12973526 -0.13248099 0.78299999 -2.9290976e+38
-0.12731391 -0.13281938 0.78500003 -2.7953959e+38
-0.12456118 -0.13281938 0.78500003 -2.8886475e+38
-0.12211878 -0.13315777 0.787 -2.7154826e+38
-0.11935904 -0.13315777 0.787 -2.649176e+38
-0.1165993 -0.13315777 0.787 -2.8222912e+38
-0.11383954 -0.13315777 0.787 -2.8223419e+38
-0.1110798 -0.13315777 0.787 -2.8491859e+38
-0.10859532 -0.13349617 0.78899997 -2.8623212e+38
-0.1059627 -0.13366537 0.79000002 -2.9424927e+38
-0.10319243 -0.13366537 0.79000002 -2.7155327e+38
-0.10042217 -0.13366537 0.79000002 -2.7155842e+38
-0.097651899 -0.13366537 0.79000002 -3.009008e+38
-0.094881631 -0.13366537 0.79000002 -2.6222831e+38
-0.092344552 -0.13400376 0.792 -2.6890555e+38
-0.089567274 -0.13400376 0.792 -2.6087288e+38
-0.086789995 -0.13400376 0.792 -2.7553086e+38
-0.084012717 -0.13400376 0.792 -2.8356334e+38
-0.081235439 -0.13400376 0.792 -2.7689643e+38
-0.078656286 -0.13434215 0.79400003 -2.8222912e+38
-0.075871997 -0.13434215 0.79400003 -2.7825174e+38
-0.073271796 -0.13468054 0.796 -2.8623212e+38
-0.070657574 -0.13501893 0.79799998 -2.8356334e+38
-0.067859255 -0.13501893 0.79799998 -2.6090916e+38
-0.065060936 -0.13501893 0.79799998 -2.7292988e+38
-0.062262613 -0.13501893 0.79799998 -2.5557651e+38
-0.059613332 -0.13535734 0.80000001 -2.7693296e+38
-0.056807999 -0.13535734 0.80000001 -3.0625923e+38
-0.054002665 -0.13535734 0.80000001 -2.8491325e+38
-0.051197331 -0.13535734 0.80000001 -2.7558296e+38
-0.048512977 -0.13569571 0.80199999 -2.7425357e+38
-0.045700628 -0.13569571 0.80199999 -2.782517e+38
-0.04294176 -0.13586491 0.80299997 -2.7291913e+38
-0.040125906 -0.13586491 0.80299997 -2.7556203e+38
-0.037310053 -0.13586491 0.80299997 -2.9289935e+38
-0.034494203 -0.13586491 0.80299997 -2.9289931e+38
-0.031757247 -0.13620332 0.80500001 -2.9157528e+38
-0.028934384 -0.13620332 0.80500001 -2.9290972e+38
-0.026111515 -0.13620332 0.80500001 -2.7157962e+38
-0.023288649 -0.13620332 0.80500001 -2.7824663e+38
-0.020465782 -0.13620332 0.80500001 -2.8355823e+38
-0.017686749 -0.13654169 0.80699998 -2.9156487e+38
-0.014893689 -0.1368801 0.80900002 -2.9290465e+38
-0.012056797 -0.1368801 0.80900002 -3.0091107e+38
-0.0092199035 -0.1368801 0.80900002 -2.8889589e+38
-0.0063830097 -0.1368801 0.80900002 -3.0091107e+38
-0.0035461166 -0.1368801 0.80900002 -3.0090595e+38
-0.0007109766 -0.13721849 0.81099999 -2.9690799e+38
0.0021329301 -0.13721849 0.81099999 -2.8090478e+38
0.0049891099 -0.1375569 0.81300002 -3.0226098e+38
0.0078400299 -0.1375569 0.81300002 -2.7290384e+38
0.01069095 -0.1375569 0.81300002 -2.9426513e+38
0.01354187 -0.1375569 0.81300002 -2.7155352e+38
0.016433116 -0.13789527 0.815 -2.8492409e+38
0.019291049 -0.13789527 0.815 -2.9291456e+38
0.022148982 -0.13789527 0.815 -2.8758218e+38
0.025006915 -0.13789527 0.815 -2.9024075e+38
0.027933229 -0.13823368 0.81699997 -3.0225084e+38
0.030798176 -0.13823368 0.81699997 -2.9157021e+38
0.033745527 -0.13857207 0.81900001 -3.0226102e+38
0.036617488 -0.13857207 0.81900001 -2.8356863e+38
0.039489452 -0.13857207 0.81900001 -2.822289e+38
0.042464852 -0.13891046 0.82099998 -2.8490311e+38
0.045343827 -0.13891046 0.82099998 -2.8356863e+38
0.048222803 -0.13891046 0.82099998 -2.9158039e+38
0.051226262 -0.13924885 0.82300001 -2.8224437e+38
0.054112248 -0.13924885 0.82300001 -2.6223338e+38
0.056998234 -0.13924885 0.82300001 -2.9426513e+38
0.05988422 -0.13924885 0.82300001 -2.8088933e+38
0.062770203 -0.13924885 0.82300001 -2.9426513e+38
0.065656193 -0.13924885 0.82300001 -2.6758699e+38
0.068708748 -0.13958724 0.82499999 -2.9428042e+38
0.071601741 -0.13958724 0.82499999 -3.1557959e+38
0.074494742 -0.13958724 0.82499999 -2.9289359e+38
0.077575356 -0.13992564 0.82700002 -2.9155972e+38
0.080669984 -0.14026402 0.829 -2.6492267e+38
0.083778642 -0.14060242 0.83099997 -2.8227036e+38
0.086484037 -0.14026402 0.829 -2.9692322e+38
0.089391068 -0.14026402 0.829 -2.9558878e+38
0.09229809 -0.14026402 0.829 -2.9290953e+38
0.095205121 -0.14026402 0.829 -2.8356334e+38
0.098348841 -0.14060242 0.83099997 -2.7959125e+38
0.1015066 -0.14094082 0.833 -2.7426379e+38
0.10417692 -0.14060242 0.83099997 -2.7825174e+38
0.10709096 -0.14060242 0.83099997 -2.8089967e+38
0.11026976 -0.14094082 0.833 -2.7556199e+38
0.11319081 -0.14094082 0.833 -2.7689643e+38
0.11666943 -0.14161761 0.83700001 -2.7823598e+38
0.11960451 -0.14161761 0.83700001 -2.822393e+38
0.12253959 -0.14161761 0.83700001 -2.7022413e+38
0.12547466 -0.14161761 0.83700001 -2.7155859e+38
0.12840974 -0.14161761 0.83700001 -2.6224872e+38
0.13165867 -0.141956 0.83899999 -2.6623616e+38
0.13460077 -0.141956 0.83899999 -2.7556199e+38
0.13754284 -0.141956 0.83899999 -2.7158469e+38
0.14048494 -0.141956 0.83899999 -2.7425357e+38
0.14342704 -0.141956 0.83899999 -2.8089967e+38
0.14706697 -0.14263278 0.84299999 -2.8088924e+38
0.15002309 -0.14263278 0.84299999 -3.0089516e+38
0.1529792 -0.14263278 0.84299999 -2.9289931e+38
0.15593532 -0.14263278 0.84299999 -2.7155859e+38
0.15889144 -0.14263278 0.84299999 -2.7423769e+38
0.16184756 -0.14263278 0.84299999 -2.7289814e+38
0.16480368 -0.14263278 0.84299999 -2.7158469e+38
0.16815782 -0.14297119 0.84500003 -2.7289311e+38
0.17152596 -0.14330956 0.847 -2.9689742e+38
0.17449611 -0.14330956 0.847 -2.7556203e+38
0.17746626 -0.14330956 0.847 -2.6624699e+38
0.1804364 -0.14330956 0.847 -2.7155859e+38
0.18340655 -0.14330956 0.847 -2.5957464e+38
0.18681678 -0.14364795 0.84899998 -2.7156374e+38
0.18979394 -0.14364795 0.84899998 -2.6488646e+38
0.1932252 -0.14398636 0.85100001 -2.6358823e+38
0.19574825 -0.14364795 0.84899998 -2.5956446e+38
0.19872542 -0.14364795 0.84899998 -2.3421542e+38
0.20170258 -0.14364795 0.84899998 -2.6358847e+38
0.20516191 -0.14398636 0.85100001 -2.6755535e+38
0.20936903 -0.14483234 0.85600001 -2.662209e+38
0.21237074 -0.14483234 0.85600001 -2.569059e+38
0.21537244 -0.14483234 0.85600001 -2.5691627e+38
0.21888436 -0.14517073 0.85799998 -2.6491255e+38
0.22189309 -0.14517073 0.85799998 -2.6491251e+38
0.22490181 -0.14517073 0.85799998 -2.6357809e+38
0.22791053 -0.14517073 0.85799998 -2.6491251e+38
0.23091926 -0.14517073 0.85799998 -2.7022413e+38
0.23447324 -0.14550912 0.86000001 -2.6887928e+38
0.23804128 -0.14584751 0.86199999 -2.6756046e+38
0.24106403 -0.14584751 0.86199999 -2.6489158e+38
0.24465314 -0.14618592 0.86400002 -2.6756046e+38
0.24768288 -0.14618592 0.86400002 -2.7154816e+38
0.25013226 -0.14584751 0.86199999 -2.6754484e+38
0.25315502 -0.14584751 0.86199999 -2.3954236e+38
0.25617775 -0.14584751 0.86199999 -2.5825079e+38
0.25980192 -0.14618592 0.86400002 -2.662209e+38
0.26283169 -0.14618592 0.86400002 -2.3686832e+38
0.26678455 -0.1466935 0.86699998 -2.662209e+38
0.26982483 -0.1466935 0.86699998 -2.7690665e+38
0.27349457 -0.1470319 0.86900002 -2.5555613e+38
0.27654189 -0.1470319 0.86900002 -2.5820919e+38
0.27958915 -0.1470319 0.86900002 -2.5287139e+38
0.28263646 -0.1470319 0.86900002 -2.4219586e+38
0.28502625 -0.1466935 0.86699998 -2.3553891e+38
0.28806651 -0.1466935 0.86699998 -2.4887326e+38
0.29177833 -0.1470319 0.86900002 -2.5154206e+38
0.29550415 -0.14737029 0.87099999 -2.6221758e+38
0.29924405 -0.14770868 0.87300003 -2.4753874e+38
0.30230537 -0.14770868 0.87300003 -2.4623563e+38
0.30536667 -0.14770868 0.87300003 -2.6356221e+38
0.30913457 -0.14804707 0.875 -2.3556522e+38
0.31148931 -0.14770868 0.87300003 -2.3159248e+38
0.31527123 -0.14804707 0.875 -2.7021912e+38
0.31761196 -0.14770868 0.87300003 -2.5153691e+38
0.32250988 -0.14855468 0.87800002 -2.3556011e+38
0.32633036 -0.14889306 0.88 -2.4888344e+38
0.32941628 -0.14889306 0.88 -2.528765e+38
0.33250213 -0.14889306 0.88 -2.4887318e+38
0.33635071 -0.14923146 0.88200003 -2.4357691e+38
0.33944356 -0.14923146 0.88200003 -2.4357691e+38
0.34253645 -0.14923146 0.88200003 -2.6221758e+38
0.34562933 -0.14923146 0.88200003 -2.568953e+38
0.34990835 -0.14973904 0.88499999 -2.4624074e+38
0.35301173 -0.14973904 0.88499999 -2.3423076e+38
0.3577247 -0.15041582 0.889 -2.3956355e+38
0.36084211 -0.15041582 0.889 -2.382341e+38
0.36395955 -0.15041582 0.889 -2.4486986e+38
0.36707696 -0.15041582 0.889 -2.3689455e+38
0.37019441 -0.15041582 0.889 -2.3689455e+38
0.37247199 -0.15007745 0.88700002 -2.4090306e+38
0.37642926 -0.15041582 0.889 -2.4089284e+38
0.38040054 -0.15075423 0.89099997 -2.3956862e+38
0.38567722 -0.15160021 0.89600003 -2.4357184e+38
0.38881919 -0.15160021 0.89600003 -2.5154206e+38
0.39196116 -0.15160021 0.89600003 -2.3953209e+38
0.39510316 -0.15160021 0.89600003 -2.2888292e+38
0.3982451 -0.15160021 0.89600003 -2.2488967e+38
0.4013871 -0.15160021 0.89600003 -2.2088645e+38
0.40452906 -0.15160021 0.89600003 -2.288931e+38
0.40767103 -0.15160021 0.89600003 -2.5552948e+38
0.410813 -0.15160021 0.89600003 -2.5288664e+38
0.41395497 -0.15160021 0.89600003 -2.3155691e+38
0.41802797 -0.1519386 0.898 -2.3422058e+38
0.42117694 -0.1519386 0.898 -2.2221582e+38
0.42432594 -0.1519386 0.898 -2.2223108e+38
0.42747495 -0.1519386 0.898 -2.2885146e+38
0.43062389 -0.1519386 0.898 -2.3288058e+38
0.43377289 -0.1519386 0.898 -2.3953209e+38
nan nan nan -2.3155691e+38
nan nan nan -2.288931e+38
nan nan nan -2.2622414e+38
nan nan nan -2.1954175e+38
nan nan nan -2.2088645e+38
nan nan nan -2.2618258e+38
nan nan nan -2.2752213e+38
nan nan nan -2.2618769e+38
nan nan nan -2.1821238e+38
nan nan nan -2.2487394e+38
nan nan nan -2.1953096e+38
nan nan nan -2.1553285e+38
nan nan nan -2.2484814e+38
nan nan nan -2.1554859e+38
nan nan nan -2.1288492e+38
nan nan nan -2.1287981e+38
nan nan nan -2.1687794e+38
nan nan nan -2.1288492e+38
nan nan nan -2.1287981e+38
nan nan nan -2.1554859e+38
nan nan nan -2.1155048e+38
nan nan nan -2.1021085e+38
-0.40933406 -0.12145077 0.73299998 -2.3552366e+38
-0.40676364 -0.12145077 0.73299998 -2.2751195e+38
-0.40143615 -0.12062231 0.72799999 -2.6353673e+38
-0.39888331 -0.12062231 0.72799999 -2.6089837e+38
-0.39633045 -0.12062231 0.72799999 -2.6488646e+38
-0.39485943 -0.12095369 0.73000002 -2.6622598e+38
-0.39391172 -0.12145077 0.73299998 -2.5687986e+38
-0.39187527 -0.12161645 0.73400003 -2.5557165e+38
-0.38930136 -0.12161645 0.73400003 -2.6355709e+38
-0.3877812 -0.12194784 0.736 -2.6488139e+38
-0.38520029 -0.12194784 0.736 -2.5820883e+38
-0.3810598 -0.12145077 0.73299998 -2.4753874e+38
-0.37848943 -0.12145077 0.73299998 -2.4621977e+38
-0.37643188 -0.12161645 0.73400003 -2.5287139e+38
-0.373858 -0.12161645 0.73400003 -2.6086231e+38
-0.37330744 -0.12227921 0.73799998 -2.6353647e+38
-0.37071952 -0.12227921 0.73799998 -2.5421094e+38
-0.36863044 -0.12244491 0.73900002 -2.5153695e+38
-0.36554369 -0.12227921 0.73799998 -2.528765e+38
-0.36344758 -0.12244491 0.73900002 -2.5420583e+38
-0.36085618 -0.12244491 0.73900002 -2.6619488e+38
-0.35826474 -0.12244491 0.73900002 -2.3419433e+38
-0.35663587 -0.12277628 0.741 -2.3422565e+38
-0.35451519 -0.12294196 0.74199998 -2.4618839e+38
-0.35191327 -0.12294196 0.74199998 -2.5017141e+38
-0.35025287 -0.12327335 0.74400002 -2.4486474e+38
-0.34764391 -0.12327335 0.74400002 -2.6085213e+38
-0.34503496 -0.12327335 0.74400002 -2.4623563e+38
-0.342426 -0.12327335 0.74400002 -2.5421094e+38
-0.33981705 -0.12327335 0.74400002 -2.5420076e+38
-0.33630157 -0.12294196 0.74199998 -2.5687982e+38
-0.33459911 -0.12327335 0.74400002 -2.5687982e+38
-0.33199015 -0.12327335 0.74400002 -2.4753363e+38
-0.3293812 -0.12327335 0.74400002 -2.6088314e+38
-0.32765064 -0.12360474 0.74599999 -2.6088314e+38
-0.32503468 -0.12360474 0.74599999 -2.5286628e+38
-0.32285088 -0.12377042 0.74699998 -2.7022413e+38
-0.32023141 -0.12377042 0.74699998 -2.5821434e+38
-0.31761193 -0.12377042 0.74699998 -2.6220736e+38
-0.31583583 -0.12410181 0.74900001 -2.5818313e+38
-0.31237298 -0.12377042 0.74699998 -2.4753363e+38
-0.31058282 -0.12410181 0.74900001 -2.622074e+38
-0.30795634 -0.12410181 0.74900001 -2.6753973e+38
-0.30532983 -0.12410181 0.74900001 -2.488576e+38
-0.30270335 -0.12410181 0.74900001 -2.3953217e+38
-0.30007684 -0.12410181 0.74900001 -2.622074e+38
-0.2966561 -0.12377042 0.74699998 -2.9289931e+38
-0.2940366 -0.12377042 0.74699998 -2.635314e+38
-0.29141712 -0.12377042 0.74699998 -2.5820919e+38
-0.28957087 -0.12410181 0.74900001 -2.6487606e+38
-0.2873275 -0.1242675 0.75 -2.5952272e+38
-0.28621587 -0.12493026 0.75400001 -2.741913e+38
-0.28357184 -0.12493026 0.75400001 -2.6756046e+38
-0.28092784 -0.12493026 0.75400001 -2.6755027e+38
-0.27828377 -0.12493026 0.75400001 -2.7955489e+38
-0.27563977 -0.12493026 0.75400001 -2.6487624e+38
-0.27335781 -0.12509593 0.755 -2.6087296e+38
-0.27071026 -0.12509593 0.755 -2.7686e+38
-0.26770768 -0.12493026 0.75400001 -2.7018259e+38
-0.26506367 -0.12493026 0.75400001 -2.6353612e+38
-0.26276767 -0.12509593 0.755 -2.8355827e+38
-0.26012012 -0.12509593 0.755 -2.8089436e+38
-0.2574726 -0.12509593 0.755 -2.7558296e+38
-0.25482506 -0.12509593 0.755 -2.5686964e+38
-0.25217754 -0.12509593 0.755 -2.7019829e+38
-0.25019103 -0.12542732 0.75700003 -2.7154816e+38
-0.24819045 -0.12575871 0.759 -2.7154816e+38
-0.24617587 -0.12609008 0.76099998 -2.702138e+38
-0.2435073 -0.12609008 0.76099998 -2.8220849e+38
-0.24083871 -0.12609008 0.76099998 -2.4885756e+38
-0.23817016 -0.12609008 0.76099998 -2.5687982e+38
-0.23488267 -0.12575871 0.759 -2.6618981e+38
-0.232833 -0.12609008 0.76099998 -2.6355202e+38
-0.23016442 -0.12609008 0.76099998 -2.6221243e+38
-0.22779483 -0.12625578 0.76200002 -2.7288804e+38
-0.22512273 -0.12625578 0.76200002 -2.7154311e+38
-0.22245066 -0.12625578 0.76200002 -2.6886914e+38
-0.22035542 -0.12658715 0.764 -2.6753466e+38
-0.21767633 -0.12658715 0.764 -2.7287755e+38
-0.21499723 -0.12658715 0.764 -2.7288781e+38
-0.21231814 -0.12658715 0.764 -2.8222379e+38
-0.20963904 -0.12658715 0.764 -2.8218245e+38
-0.20695995 -0.12658715 0.764 -2.9555791e+38
-0.20481561 -0.12691854 0.76599997 -2.8220849e+38
-0.20212951 -0.12691854 0.76599997 -2.8889589e+38
-0.1997038 -0.12708423 0.76700002 -2.7421207e+38
-0.19701417 -0.12708423 0.76700002 -2.7555692e+38
-0.19483127 -0.12741561 0.76899999 -2.7155352e+38
-0.19213463 -0.12741561 0.76899999 -2.7288804e+38
-0.18943802 -0.12741561 0.76899999 -2.9821602e+38
-0.18674138 -0.12741561 0.76899999 -2.8219259e+38
-0.18452342 -0.127747 0.77100003 -2.7421714e+38
-0.18181978 -0.127747 0.77100003 -2.7154311e+38
-0.17958078 -0.12807837 0.773 -2.7421207e+38
-0.17687012 -0.12807837 0.773 -2.7688081e+38
-0.17438477 -0.12824406 0.77399999 -2.7422759e+38
-0.17211421 -0.12857543 0.77600002 -2.7821525e+38
-0.16939303 -0.12857543 0.77600002 -2.7422248e+38
-0.16667187 -0.12857543 0.77600002 -2.7021907e+38
-0.16352813 -0.12824406 0.77399999 -2.6622095e+38
-0.16122952 -0.12857543 0.77600002 -2.6891066e+38
-0.15891688 -0.1289068 0.778 -2.6491255e+38
-0.15618868 -0.1289068 0.778 -2.835947e+38
-0.153855 -0.12923819 0.77999997 -2.7291913e+38
-0.15073231 -0.1289068 0.778 -2.4219582e+38
-0.14800413 -0.1289068 0.778 -2.7422244e+38
-0.14527594 -0.1289068 0.778 -2.6090401e+38
-0.14254776 -0.1289068 0.778 -2.6755535e+38
-0.14017899 -0.12923819 0.77999997 -2.8088419e+38
-0.1374438 -0.12923819 0.77999997 -2.7822586e+38
-0.13470858 -0.12923819 0.77999997 -2.7955489e+38
-0.13197339 -0.12923819 0.77999997 -2.7955992e+38
-0.12923819 -0.12923819 0.77999997 -2.795548e+38
-0.12666517 -0.12940389 0.78100002 -2.7955489e+38
-0.12392648 -0.12940389 0.78100002 -2.8886475e+38
-0.12149811 -0.12973526 0.78299999 -2.808946e+38
-0.11875238 -0.12973526 0.78299999 -2.7025025e+38
-0.11630299 -0.13006665 0.78500003 -2.8221864e+38
-0.11326094 -0.12973526 0.78299999 -2.8356334e+38
-0.11079752 -0.13006665 0.78500003 -2.6222261e+38
-0.1077695 -0.12973526 0.78299999 -2.808946e+38
-0.10556031 -0.13039802 0.787 -2.8224437e+38
-0.10280056 -0.13039802 0.787 -2.8357374e+38
-0.10004081 -0.13039802 0.787 -2.7823087e+38
-0.097281069 -0.13039802 0.787 -2.702451e+38
-0.094521321 -0.13039802 0.787 -2.6490744e+38
-0.091994762 -0.13072941 0.78899997 -2.702451e+38
-0.089228004 -0.13072941 0.78899997 -2.7158469e+38
-0.086570829 -0.13089509 0.79000002 -2.8622701e+38
-0.083800569 -0.13089509 0.79000002 -2.7422755e+38
-0.081030294 -0.13089509 0.79000002 -2.7425357e+38
-0.07845816 -0.13122648 0.792 -2.84898e+38
-0.075680882 -0.13122648 0.792 -2.8224999e+38
-0.0730877 -0.13155787 0.79400003 -2.9024075e+38
-0.070303403 -0.13155787 0.79400003 -2.7955489e+38
-0.06768918 -0.13188924 0.796 -2.6223338e+38
-0.06489788 -0.13188924 0.796 -2.6622095e+38
-0.062106572 -0.13188924 0.796 -2.6890559e+38
-0.059464298 -0.13222061 0.79799998 -2.7823087e+38
-0.056665979 -0.13222061 0.79799998 -3.0891785e+38
-0.053867657 -0.13222061 0.79799998 -2.9426513e+38
-0.051197331 -0.132552 0.80000001 -2.875979e+38
-0.048391998 -0.132552 0.80000001 -2.7823087e+38
